ply
format ascii 1.0
element vertex 520
property float x
property float y
property float z
property uchar red
property uchar green
property uchar blue
end_header
0.010375 0.10935 -0.107299 255 125 0
0.016136 0.112607 -0.112332 255 125 0
0.016136 0.10935 -0.112332 255 125 0
0.010375 0.112607 -0.107299 255 125 0
0.020399 0.10935 -0.118686 255 125 0
0.052754 0.10935 -0.092621 255 125 0
0.003506 0.10935 -0.103928 255 125 0
0.052754 0.112607 -0.092621 255 125 0
0.020399 0.112607 -0.118686 255 125 0
0.003506 0.112607 -0.103928 255 125 0
0.022872 0.10935 -0.125926 255 125 0
0.052754 0.10935 -0.170776 255 125 0
-0.004 0.10935 -0.102449 255 125 0
-0.051453 0.112607 -0.092621 255 125 0
0.052754 0.112607 -0.170776 255 125 0
0.022872 0.112607 -0.125926 255 125 0
-0.011634 0.10935 -0.102964 255 125 0
-0.004 0.112607 -0.102449 255 125 0
0.023387 0.10935 -0.13356 255 125 0
-0.051453 0.10935 -0.170776 255 125 0
-0.051453 0.10935 -0.092621 255 125 0
-0.011634 0.112607 -0.102964 255 125 0
0.023387 0.112607 -0.13356 255 125 0
0.021909 0.10935 -0.141067 255 125 0
-0.051453 0.112607 -0.170776 255 125 0
-0.007724 0.10935 -0.160947 255 125 0
-0.018875 0.10935 -0.105436 255 125 0
-0.018875 0.112607 -0.105436 255 125 0
0.021909 0.112607 -0.141067 255 125 0
0.018537 0.10935 -0.147935 255 125 0
-0.007724 0.112607 -0.160947 255 125 0
-9.1e-05 0.10935 -0.160432 255 125 0
-0.01523 0.10935 -0.159468 255 125 0
-0.025227 0.10935 -0.109699 255 125 0
-0.025227 0.112607 -0.109699 255 125 0
-0.033633 0.10935 -0.122329 255 125 0
0.018537 0.112607 -0.147935 255 125 0
0.013503 0.10935 -0.153697 255 125 0
-0.033633 0.112607 -0.122329 255 125 0
-0.01523 0.112607 -0.159468 255 125 0
-9.1e-05 0.112607 -0.160432 255 125 0
0.00715 0.10935 -0.157959 255 125 0
-0.022099 0.10935 -0.156098 255 125 0
-0.030261 0.10935 -0.115461 255 125 0
-0.030261 0.112607 -0.115461 255 125 0
-0.035111 0.10935 -0.129836 255 125 0
0.013503 0.112607 -0.153697 255 125 0
-0.035111 0.112607 -0.129836 255 125 0
-0.022099 0.112607 -0.156098 255 125 0
0.00715 0.112607 -0.157959 255 125 0
-0.02786 0.10935 -0.151064 255 125 0
-0.034596 0.10935 -0.13747 255 125 0
-0.034596 0.112607 -0.13747 255 125 0
-0.02786 0.112607 -0.151064 255 125 0
-0.032123 0.10935 -0.14471 255 125 0
-0.032123 0.112607 -0.14471 255 125 0
0.039785 0.161897 -0.152122 255 125 0
0.014887 0.087456 -0.149761 255 125 0
0.044633 0.159663 -0.146641 255 125 0
0.01004 0.08969 -0.155242 255 125 0
0.047982 0.157995 -0.139967 255 125 0
0.043548 0.160381 -0.152926 255 125 0
0.033768 0.164544 -0.156037 255 125 0
0.013803 0.088175 -0.156046 255 125 0
0.018236 0.085789 -0.143087 255 125 0
0.048444 0.158081 -0.146368 255 125 0
0.004023 0.092339 -0.159157 255 125 0
0.018698 0.085875 -0.149488 255 125 0
0.049603 0.157006 -0.132556 255 125 0
0.051582 0.156454 -0.138637 255 125 0
0.037227 0.163198 -0.157863 255 125 0
0.026993 0.167425 -0.15812 255 125 0
0.007481 0.090993 -0.160983 255 125 0
0.021836 0.084248 -0.141757 255 125 0
0.019858 0.0848 -0.135676 255 125 0
-0.002752 0.09522 -0.16124 255 125 0
0.049388 0.156765 -0.124912 255 125 0
0.052746 0.155612 -0.130258 255 125 0
0.029911 0.166341 -0.160842 255 125 0
0.019921 0.170343 -0.158227 255 125 0
0.000166 0.094134 -0.163962 255 125 0
0.023001 0.083406 -0.133378 255 125 0
0.019642 0.084559 -0.128032 255 125 0
-0.009824 0.098138 -0.161348 255 125 0
0.017603 0.085081 -0.120677 255 125 0
0.05186 0.155612 -0.121803 255 125 0
0.014326 0.172737 -0.160265 255 125 0
0.013035 0.173099 -0.156353 255 125 0
-0.01542 0.10053 -0.163385 255 125 0
0.0221 0.169594 -0.161662 255 125 0
0.022114 0.083406 -0.124923 255 125 0
0.047349 0.157287 -0.117556 255 125 0
0.007118 0.175554 -0.156747 255 125 0
-0.01671 0.100894 -0.159473 255 125 0
-0.022627 0.103348 -0.159867 255 125 0
-0.007646 0.097388 -0.164782 255 125 0
0.013881 0.086331 -0.11411 255 125 0
0.019236 0.084248 -0.116969 255 125 0
0.048982 0.156454 -0.113849 255 125 0
0.006802 0.175505 -0.152624 255 125 0
0.043626 0.158536 -0.11099 255 125 0
-0.022943 0.1033 -0.155744 255 125 0
0.000967 0.177854 -0.151348 255 125 0
0.038473 0.160429 -0.105661 255 125 0
0.014562 0.085875 -0.110057 255 125 0
0.044308 0.158081 -0.106936 255 125 0
0.001649 0.177398 -0.147295 255 125 0
-0.028778 0.105648 -0.154469 255 125 0
0.008727 0.088224 -0.108781 255 125 0
-0.028096 0.105192 -0.150415 255 125 0
-0.003706 0.17948 -0.144436 255 125 0
-0.033452 0.107275 -0.147556 255 125 0
0.03224 0.162836 -0.101932 255 125 0
0.002495 0.09063 -0.105052 255 125 0
0.038157 0.160381 -0.101538 255 125 0
-0.031819 0.106442 -0.143848 255 125 0
-0.002074 0.178648 -0.140728 255 125 0
0.008412 0.088175 -0.104658 255 125 0
-0.006585 0.180322 -0.136481 255 125 0
-0.03633 0.108117 -0.139602 255 125 0
0.025354 0.165592 -0.100057 255 125 0
-0.004392 0.093386 -0.103177 255 125 0
0.03095 0.163198 -0.09802 255 125 0
-0.033858 0.106964 -0.136493 255 125 0
-0.004112 0.17917 -0.133373 255 125 0
0.001204 0.090993 -0.10114 255 125 0
-0.007471 0.180322 -0.128027 255 125 0
0.018282 0.16851 -0.100165 255 125 0
-0.011464 0.096304 -0.103285 255 125 0
0.023175 0.166341 -0.096623 255 125 0
-0.004329 0.178929 -0.125729 255 125 0
-0.037217 0.108117 -0.131147 255 125 0
0.008048 0.172737 -0.100422 255 125 0
-0.021697 0.10053 -0.103542 255 125 0
-0.006571 0.094134 -0.099743 255 125 0
0.015364 0.169594 -0.097442 255 125 0
-0.034074 0.106722 -0.128849 255 125 0
-0.006306 0.17948 -0.119648 255 125 0
0.011506 0.171391 -0.102247 255 125 0
-0.014382 0.097388 -0.100562 255 125 0
-0.018239 0.099185 -0.105368 255 125 0
-0.002707 0.17794 -0.118318 255 125 0
-0.036052 0.107275 -0.122768 255 125 0
0.001727 0.175554 -0.105358 255 125 0
-0.028018 0.103348 -0.108479 255 125 0
-0.032452 0.105735 -0.121438 255 125 0
-0.003169 0.177854 -0.111917 255 125 0
0.00549 0.174038 -0.106163 255 125 0
-0.024255 0.101832 -0.109283 255 125 0
0.000643 0.176272 -0.111644 255 125 0
-0.032915 0.105648 -0.115037 255 125 0
-0.029103 0.104066 -0.114764 255 125 0
0.009108 0.109382 0.079673 255 125 0
0.014871 0.112638 0.07464 255 125 0
0.014871 0.109382 0.07464 255 125 0
0.009108 0.112638 0.079673 255 125 0
0.019133 0.109382 0.068286 255 125 0
0.051489 0.109382 0.094351 255 125 0
0.002241 0.109382 0.083045 255 125 0
0.051489 0.112638 0.094351 255 125 0
0.019133 0.112638 0.068286 255 125 0
0.002241 0.112638 0.083045 255 125 0
0.021606 0.109382 0.061046 255 125 0
0.051489 0.109382 0.016196 255 125 0
-0.005266 0.109382 0.084524 255 125 0
-0.052718 0.112638 0.094351 255 125 0
0.051489 0.112638 0.016196 255 125 0
0.021606 0.112638 0.061046 255 125 0
-0.0129 0.109382 0.084009 255 125 0
-0.005266 0.112638 0.084524 255 125 0
0.022121 0.109382 0.053412 255 125 0
-0.052718 0.109382 0.016196 255 125 0
-0.052718 0.109382 0.094351 255 125 0
-0.0129 0.112638 0.084009 255 125 0
0.022121 0.112638 0.053412 255 125 0
0.020642 0.109382 0.045905 255 125 0
-0.052718 0.112638 0.016196 255 125 0
-0.00899 0.109382 0.026025 255 125 0
-0.02014 0.109382 0.081536 255 125 0
-0.02014 0.112638 0.081536 255 125 0
0.020642 0.112638 0.045905 255 125 0
0.017272 0.109382 0.039038 255 125 0
-0.00899 0.112638 0.026025 255 125 0
-0.001356 0.109382 0.02654 255 125 0
-0.016496 0.109382 0.027504 255 125 0
-0.026494 0.109382 0.077273 255 125 0
-0.026494 0.112638 0.077273 255 125 0
-0.034898 0.109382 0.064643 255 125 0
0.017272 0.112638 0.039038 255 125 0
0.012238 0.109382 0.033276 255 125 0
-0.034898 0.112638 0.064643 255 125 0
-0.016496 0.112638 0.027504 255 125 0
-0.001356 0.112638 0.02654 255 125 0
0.005884 0.109382 0.029013 255 125 0
-0.023365 0.109382 0.030874 255 125 0
-0.031527 0.109382 0.071511 255 125 0
-0.031527 0.112638 0.071511 255 125 0
-0.036377 0.109382 0.057136 255 125 0
0.012238 0.112638 0.033276 255 125 0
-0.036377 0.112638 0.057136 255 125 0
-0.023365 0.112638 0.030874 255 125 0
0.005884 0.112638 0.029013 255 125 0
-0.029127 0.109382 0.035908 255 125 0
-0.035863 0.109382 0.049502 255 125 0
-0.035863 0.112638 0.049502 255 125 0
-0.029127 0.112638 0.035908 255 125 0
-0.03339 0.109382 0.042262 255 125 0
-0.03339 0.112638 0.042262 255 125 0
0.038519 0.161928 0.03485 255 125 0
0.013621 0.087488 0.037211 255 125 0
0.043366 0.159694 0.040331 255 125 0
0.008773 0.089722 0.03173 255 125 0
0.046716 0.158026 0.047005 255 125 0
0.042282 0.160412 0.034046 255 125 0
0.032503 0.164576 0.030935 255 125 0
0.012536 0.088206 0.030926 255 125 0
0.01697 0.08582 0.043885 255 125 0
0.047178 0.158112 0.040604 255 125 0
0.002757 0.092369 0.027815 255 125 0
0.017433 0.085907 0.037484 255 125 0
0.048338 0.157038 0.054416 255 125 0
0.050315 0.156485 0.048335 255 125 0
0.035961 0.16323 0.029109 255 125 0
0.025727 0.167457 0.028852 255 125 0
0.006215 0.091024 0.025989 255 125 0
0.02057 0.08428 0.045215 255 125 0
0.018593 0.084832 0.051296 255 125 0
-0.004018 0.09525 0.025732 255 125 0
0.048121 0.156796 0.062061 255 125 0
0.05148 0.155643 0.056714 255 125 0
0.028645 0.166373 0.02613 255 125 0
0.018655 0.170375 0.028745 255 125 0
-0.0011 0.094166 0.02301 255 125 0
0.021735 0.083438 0.053594 255 125 0
0.018376 0.084591 0.058941 255 125 0
-0.01109 0.098168 0.025624 255 125 0
0.016337 0.085113 0.066296 255 125 0
0.050594 0.155643 0.065169 255 125 0
0.013059 0.172767 0.026707 255 125 0
0.011769 0.173131 0.030619 255 125 0
-0.016686 0.100562 0.023587 255 125 0
0.020834 0.169626 0.02531 255 125 0
0.020848 0.083438 0.062049 255 125 0
0.046083 0.157318 0.069417 255 125 0
0.005852 0.175585 0.030225 255 125 0
-0.017977 0.100924 0.027499 255 125 0
-0.023894 0.10338 0.027105 255 125 0
-0.008911 0.09742 0.02219 255 125 0
0.012614 0.086362 0.072862 255 125 0
0.01797 0.08428 0.070003 255 125 0
0.047715 0.156485 0.073123 255 125 0
0.005536 0.175537 0.034348 255 125 0
0.04236 0.158568 0.075983 255 125 0
-0.024209 0.103332 0.031228 255 125 0
-0.000299 0.177886 0.035624 255 125 0
0.037207 0.160461 0.081311 255 125 0
0.013296 0.085907 0.076915 255 125 0
0.043042 0.158112 0.080036 255 125 0
0.000383 0.177429 0.039678 255 125 0
-0.030044 0.105679 0.032504 255 125 0
0.007461 0.088255 0.078191 255 125 0
-0.029362 0.105224 0.036558 255 125 0
-0.004973 0.179512 0.042536 255 125 0
-0.034718 0.107306 0.039416 255 125 0
0.030974 0.162867 0.08504 255 125 0
0.001229 0.090662 0.08192 255 125 0
0.036891 0.160412 0.085435 255 125 0
-0.033085 0.106473 0.043124 255 125 0
-0.00334 0.178679 0.046244 255 125 0
0.007146 0.088206 0.082314 255 125 0
-0.007851 0.180354 0.050491 255 125 0
-0.037596 0.108148 0.04737 255 125 0
0.024088 0.165623 0.086915 255 125 0
-0.005658 0.093418 0.083795 255 125 0
0.029683 0.16323 0.088952 255 125 0
-0.035124 0.106995 0.050479 255 125 0
-0.005379 0.179201 0.053599 255 125 0
-6.2e-05 0.091024 0.085832 255 125 0
-0.008737 0.180354 0.058946 255 125 0
0.017016 0.168541 0.086808 255 125 0
-0.01273 0.096335 0.083688 255 125 0
0.021909 0.166373 0.090349 255 125 0
-0.005594 0.17896 0.061243 255 125 0
-0.038483 0.108148 0.055826 255 125 0
0.006782 0.172767 0.08655 255 125 0
-0.022963 0.100562 0.08343 255 125 0
-0.007836 0.094166 0.087229 255 125 0
0.014098 0.169626 0.08953 255 125 0
-0.035339 0.106754 0.058123 255 125 0
-0.007573 0.179512 0.067324 255 125 0
0.010241 0.171422 0.084726 255 125 0
-0.015648 0.09742 0.08641 255 125 0
-0.019504 0.099217 0.081605 255 125 0
-0.003973 0.177972 0.068655 255 125 0
-0.037318 0.107306 0.064204 255 125 0
0.000461 0.175585 0.081614 255 125 0
-0.029284 0.10338 0.078494 255 125 0
-0.033718 0.105765 0.065535 255 125 0
-0.004435 0.177886 0.075056 255 125 0
0.004224 0.17407 0.08081 255 125 0
-0.025521 0.101864 0.07769 255 125 0
-0.000624 0.176304 0.075329 255 125 0
-0.03418 0.105679 0.071936 255 125 0
-0.030369 0.104098 0.072208 255 125 0
-0.23753 0.107122 -0.009696 255 125 0
-0.213456 -0.518118 -0.067815 255 125 0
-0.23753 -0.518118 -0.009696 255 125 0
-0.213456 0.107122 -0.067815 255 125 0
-0.240623 -0.518118 -0.022307 255 125 0
0.228004 -0.518118 -0.009696 255 125 0
-0.23753 -0.524631 -0.009696 255 125 0
-0.245741 0.107122 0.052674 255 125 0
-0.17516 -0.518118 -0.117724 255 125 0
-0.251992 -0.518118 0.041293 255 125 0
-0.213179 -0.518118 -0.080797 255 125 0
0.236215 -0.518118 0.052674 255 125 0
0.20393 -0.518118 -0.067815 255 125 0
-0.213456 -0.524631 -0.067815 255 125 0
-0.245741 -0.524631 0.052674 255 125 0
-0.245741 -0.518118 0.052674 255 125 0
-0.17516 0.107122 -0.117724 255 125 0
0.165634 -0.518118 -0.117724 255 125 0
-0.240623 -0.524631 -0.022307 255 125 0
-0.213179 -0.524631 -0.080797 255 125 0
0.236988 -0.518118 -0.000321 255 125 0
0.228004 -0.524631 -0.009696 255 125 0
0.228004 0.107122 -0.009696 255 125 0
0.215034 -0.518118 -0.061085 255 125 0
0.20393 0.107122 -0.067815 255 125 0
0.20393 -0.524631 -0.067815 255 125 0
-0.251992 -0.524631 0.041293 255 125 0
-0.23753 0.107122 0.115044 255 125 0
-0.125252 0.107122 -0.15602 255 125 0
-0.171533 -0.518118 -0.130192 255 125 0
-0.17516 -0.524631 -0.117724 255 125 0
-0.125252 -0.518118 -0.15602 255 125 0
-0.246514 -0.518118 0.105668 255 125 0
-0.171533 -0.524631 -0.130192 255 125 0
-0.23753 -0.518118 0.115044 255 125 0
0.242466 -0.518118 0.064055 255 125 0
0.236215 -0.524631 0.052674 255 125 0
0.236215 0.107122 0.052674 255 125 0
0.178102 -0.518118 -0.114096 255 125 0
0.165634 0.107122 -0.117724 255 125 0
0.165634 -0.524631 -0.117724 255 125 0
-0.23753 -0.524631 0.115044 255 125 0
-0.246514 -0.524631 0.105668 255 125 0
-0.125252 -0.524631 -0.15602 255 125 0
0.115727 -0.518118 -0.15602 255 125 0
0.228004 -0.518118 0.115044 255 125 0
0.242466 -0.524631 0.064055 255 125 0
0.236988 -0.524631 -0.000321 255 125 0
0.215034 -0.524631 -0.061085 255 125 0
0.128707 -0.518118 -0.155743 255 125 0
0.178102 -0.524631 -0.114096 255 125 0
-0.213456 0.107122 0.173163 255 125 0
-0.067133 0.107122 -0.180093 255 125 0
-0.118521 -0.518118 -0.167124 255 125 0
-0.067133 -0.524631 -0.180093 255 125 0
-0.067133 -0.518118 -0.180093 255 125 0
-0.22456 -0.518118 0.166432 255 125 0
0.20393 -0.518118 0.173163 255 125 0
-0.213456 -0.524631 0.173163 255 125 0
0.231097 -0.518118 0.127654 255 125 0
0.231097 -0.524631 0.127654 255 125 0
0.228004 -0.524631 0.115044 255 125 0
0.228004 0.107122 0.115044 255 125 0
0.128707 -0.524631 -0.155743 255 125 0
0.115727 0.107122 -0.15602 255 125 0
0.115727 -0.524631 -0.15602 255 125 0
-0.22456 -0.524631 0.166432 255 125 0
-0.213456 -0.518118 0.173163 255 125 0
-0.118521 -0.524631 -0.167124 255 125 0
0.057607 -0.518118 -0.180093 255 125 0
0.070218 -0.518118 -0.183185 255 125 0
0.070218 -0.524631 -0.183185 255 125 0
-0.17516 0.107122 0.223071 255 125 0
-0.004763 0.107122 -0.188304 255 125 0
-0.057757 -0.518118 -0.189077 255 125 0
-0.004763 -0.524631 -0.188304 255 125 0
-0.057757 -0.524631 -0.189077 255 125 0
-0.004763 -0.518118 -0.188304 255 125 0
-0.187628 -0.518118 0.219444 255 125 0
-0.17516 -0.518118 0.223071 255 125 0
0.203653 -0.518118 0.186145 255 125 0
0.20393 -0.524631 0.173163 255 125 0
0.20393 0.107122 0.173163 255 125 0
-0.17516 -0.524631 0.223071 255 125 0
-0.187628 -0.524631 0.219444 255 125 0
0.203653 -0.524631 0.186145 255 125 0
0.057607 0.107122 -0.180093 255 125 0
0.057607 -0.524631 -0.180093 255 125 0
0.006618 -0.524631 -0.194556 255 125 0
0.165634 -0.518118 0.223071 255 125 0
-0.125252 -0.518118 0.261367 255 125 0
0.006618 -0.518118 -0.194556 255 125 0
-0.138233 -0.518118 0.26109 255 125 0
0.162007 -0.518118 0.235539 255 125 0
0.162007 -0.524631 0.235539 255 125 0
0.165634 -0.524631 0.223071 255 125 0
0.165634 0.107122 0.223071 255 125 0
-0.138233 -0.524631 0.26109 255 125 0
-0.125252 0.107122 0.261367 255 125 0
0.115727 -0.518118 0.261367 255 125 0
-0.125252 -0.524631 0.261367 255 125 0
0.115727 -0.524631 0.261367 255 125 0
0.115727 0.107122 0.261367 255 125 0
-0.067133 -0.518118 0.285441 255 125 0
-0.079743 -0.524631 0.288533 255 125 0
0.057607 -0.518118 0.285441 255 125 0
0.108995 -0.518118 0.272471 255 125 0
-0.067133 -0.524631 0.285441 255 125 0
-0.067133 0.107122 0.285441 255 125 0
-0.079743 -0.518118 0.288533 255 125 0
0.057607 0.107122 0.285441 255 125 0
0.057607 -0.524631 0.285441 255 125 0
0.108995 -0.524631 0.272471 255 125 0
-0.004763 -0.518118 0.293652 255 125 0
-0.016144 -0.524631 0.299903 255 125 0
-0.004763 -0.524631 0.293652 255 125 0
-0.004763 0.107122 0.293652 255 125 0
0.048231 -0.518118 0.294425 255 125 0
-0.016144 -0.518118 0.299903 255 125 0
0.048231 -0.524631 0.294425 255 125 0
0.24893 0.109481 0.053171 255 125 0
0.240386 0.102969 0.118069 255 125 0
0.24893 0.102969 0.053171 255 125 0
0.240386 0.109481 0.118069 255 125 0
0.240386 0.109481 -0.011727 255 125 0
-0.244022 0.109481 0.118069 255 125 0
0.215336 0.102969 0.178545 255 125 0
0.240386 0.102969 -0.011727 255 125 0
-0.252565 0.109481 0.053171 255 125 0
-0.218972 0.109481 0.178545 255 125 0
0.215336 0.109481 0.178545 255 125 0
0.215336 0.109481 -0.072203 255 125 0
-0.244022 0.109481 -0.011727 255 125 0
-0.244022 0.102969 0.118069 255 125 0
-0.252565 0.102969 0.053171 255 125 0
0.175487 0.102969 0.230476 255 125 0
0.215336 0.102969 -0.072203 255 125 0
-0.244022 0.102969 -0.011727 255 125 0
-0.179123 0.109481 0.230476 255 125 0
-0.218972 0.102969 0.178545 255 125 0
0.175487 0.109481 0.230476 255 125 0
0.175487 0.109481 -0.124134 255 125 0
-0.218972 0.109481 -0.072203 255 125 0
-0.218972 0.102969 -0.072203 255 125 0
0.123556 0.109481 0.270325 255 125 0
0.175487 0.102969 -0.124134 255 125 0
-0.127191 0.109481 0.270325 255 125 0
-0.179123 0.102969 0.230476 255 125 0
0.123556 0.102969 0.270325 255 125 0
0.123556 0.102969 -0.163983 255 125 0
-0.179123 0.109481 -0.124134 255 125 0
-0.179123 0.102969 -0.124134 255 125 0
-0.127191 0.102969 0.270325 255 125 0
0.063081 0.109481 0.295374 255 125 0
-0.066716 0.109481 0.295374 255 125 0
0.123556 0.109481 -0.163983 255 125 0
-0.066716 0.102969 0.295374 255 125 0
0.063081 0.102969 0.295374 255 125 0
0.063081 0.102969 -0.189033 255 125 0
-0.127191 0.109481 -0.163983 255 125 0
-0.001818 0.109481 0.303918 255 125 0
-0.001818 0.102969 0.303918 255 125 0
0.063081 0.109481 -0.189033 255 125 0
-0.127191 0.102969 -0.163983 255 125 0
-0.001818 0.102969 -0.197577 255 125 0
-0.066716 0.109481 -0.189033 255 125 0
-0.001818 0.109481 -0.197577 255 125 0
-0.066716 0.102969 -0.189033 255 125 0
0.227804 0.102969 0.114697 255 125 0
0.204055 0.102969 0.172032 255 125 0
0.235904 0.102969 0.053171 255 125 0
0.204055 0.089943 0.172032 255 125 0
0.227804 0.089943 0.114697 255 125 0
0.227804 0.102969 -0.008356 255 125 0
0.166277 0.102969 0.221265 255 125 0
0.166277 0.089943 0.221265 255 125 0
0.235904 0.089943 0.053171 255 125 0
0.204055 0.102969 -0.06569 255 125 0
-0.207691 0.089943 0.172032 255 125 0
-0.231439 0.089943 0.114697 255 125 0
0.227804 0.089943 -0.008356 255 125 0
-0.207691 0.102969 0.172032 255 125 0
-0.231439 0.102969 0.114697 255 125 0
-0.23954 0.102969 0.053171 255 125 0
0.117043 0.102969 0.259044 255 125 0
-0.169913 0.089943 0.221265 255 125 0
-0.23954 0.089943 0.053171 255 125 0
-0.231439 0.089943 -0.008356 255 125 0
0.204055 0.089943 -0.06569 255 125 0
0.166277 0.102969 -0.114924 255 125 0
-0.207691 0.102969 -0.06569 255 125 0
-0.169913 0.102969 0.221265 255 125 0
-0.231439 0.102969 -0.008356 255 125 0
0.117043 0.089943 0.259044 255 125 0
-0.207691 0.089943 -0.06569 255 125 0
-0.169913 0.102969 -0.114924 255 125 0
0.059709 0.102969 0.282792 255 125 0
-0.120678 0.089943 0.259044 255 125 0
-0.169913 0.089943 -0.114924 255 125 0
0.166277 0.089943 -0.114924 255 125 0
0.117043 0.102969 -0.152702 255 125 0
-0.120678 0.102969 0.259044 255 125 0
0.059709 0.089943 0.282792 255 125 0
0.117043 0.089943 -0.152702 255 125 0
0.059709 0.102969 -0.176451 255 125 0
-0.120678 0.102969 -0.152702 255 125 0
-0.063345 0.102969 0.282792 255 125 0
-0.001818 0.102969 0.290892 255 125 0
-0.063345 0.089943 0.282792 255 125 0
-0.120678 0.089943 -0.152702 255 125 0
0.059709 0.089943 -0.176451 255 125 0
-0.001818 0.089943 0.290892 255 125 0
-0.063345 0.089943 -0.176451 255 125 0
-0.001818 0.102969 -0.18455 255 125 0
-0.001818 0.089943 -0.18455 255 125 0
-0.063345 0.102969 -0.176451 255 125 0
